ply
		format ascii 1.0
		element vertex 58151
		property float x
		property float y
		property float z
		property uchar blue
		property uchar green
		property uchar red
		end_header
-245.330167 1660.733986 4280.727768 84 76 83
-316.724062 581.105328 900.287724 213 189 171
-311.288404 650.341415 1068.656254 208 186 171
-242.441273 1762.113190 4648.143005 154 115 116
-224.880409 518.092728 3961.651611 185 180 175
-315.794206 754.670668 1298.152733 201 175 155
-245.426917 1784.755516 4712.585068 243 213 191
-252.905154 1698.082924 4419.136047 122 94 89
-329.236984 707.669258 1171.364021 214 184 161
-337.095952 673.391819 1100.608158 208 177 148
-247.511292 1849.675369 4899.097824 230 200 180
-252.521515 1854.794502 4911.013412 98 58 52
-265.130067 1700.090027 4426.294327 219 183 163
-265.485120 1040.227318 3863.874435 210 202 199
-237.404823 216.125798 4019.564438 202 204 202
-256.424451 1861.711693 4923.868942 235 195 170
-350.514197 790.057898 1430.645084 202 179 159
-228.299499 -122.499621 4092.738342 168 170 172
-228.299499 -122.499621 4092.738342 168 170 172
-256.666112 583.122730 3930.906296 109 113 109
-280.880451 1375.767231 3937.932205 102 107 106
-223.590827 -285.983610 4177.631760 157 161 161
-260.564828 1854.905510 4916.218567 232 195 173
-275.767064 1056.342316 3889.513779 218 212 207
-282.728934 1222.306156 3964.746857 171 167 164
-283.014417 1221.402359 3969.482040 171 167 164
-393.780828 598.042202 926.563931 103 90 78
-268.691182 1843.201065 4876.182938 128 84 76
-236.909890 -246.430612 4161.954880 152 159 160
-257.627797 233.115458 4014.625549 197 192 185
-257.627797 233.115458 4014.625549 197 192 185
-273.173714 1817.642593 4798.519897 83 69 69
-259.757519 217.398620 4013.275146 114 111 115
-302.550626 1379.331112 3936.035919 186 182 180
-301.867437 1251.012135 3930.939484 64 71 68
-274.365115 340.059161 3992.724609 207 210 212
-277.707934 1853.869057 4921.617126 243 212 190
-301.404786 1141.106796 3904.889679 78 84 82
-283.700967 1804.898262 4764.825439 203 168 143
-279.260731 425.267696 3972.279358 202 201 198
-308.615971 945.348072 3634.281921 34 32 32
-283.234072 1849.890900 4876.492310 240 207 181
-306.218028 1129.413795 3904.275131 91 103 103
-289.319754 1801.955795 4764.288330 93 65 46
-305.895519 1672.384834 4324.324799 225 197 178
-291.715121 1793.064880 4738.259506 114 87 83
-272.111559 -97.074586 4078.755951 153 149 154
-272.111559 -97.074586 4078.755951 153 149 154
-272.111559 -97.074586 4078.755951 153 149 154
-293.191576 398.685217 4001.576233 128 126 124
-313.055277 1675.927925 4342.318344 94 67 63
-301.227355 487.657499 3938.026810 148 142 137
-305.026698 531.208754 3931.894684 111 110 113
-324.734402 1142.153835 3899.148178 113 109 105
-303.828859 438.986015 3961.433029 190 189 185
-318.025899 1680.582428 4379.133606 242 214 180
-325.853705 1048.651409 3888.323212 208 204 197
-307.265091 271.352959 4008.773804 186 179 177
-290.419412 -193.037343 4121.045685 168 171 173
-312.866068 1779.652786 4713.455963 244 209 192
-310.130763 1814.135742 4789.745712 84 56 52
-321.846199 405.493546 3970.537186 180 182 182
-312.301660 1832.715416 4832.251358 228 196 174
-347.635651 1139.389610 3897.932816 94 95 90
-337.469435 1678.878403 4353.278732 219 191 183
-323.172760 331.971669 4002.343750 152 148 150
-340.062094 1689.656639 4404.431534 235 203 179
-340.062094 1689.656639 4404.431534 235 203 179
-322.692728 1836.355209 4873.398972 202 162 144
-314.865017 -239.548421 4159.546661 216 216 216
-326.156569 1831.624985 4844.770813 240 205 182
-349.624419 488.269472 3887.738419 152 150 145
-372.893167 1538.123703 3922.481918 40 43 52
-341.580081 366.116500 3990.674591 199 197 197
-341.580081 366.116500 3990.674591 199 197 197
-339.831161 209.400535 4009.099197 129 129 118
-333.750224 1795.747757 4752.305222 95 67 64
-335.065746 1788.324928 4748.135376 223 188 167
-353.431916 439.469862 3917.132187 193 193 190
-341.555738 -74.909359 4067.283249 155 156 157
-343.296075 1794.260597 4752.071762 246 215 198
-390.094972 1541.386127 3936.276627 96 100 119
-365.828228 395.986414 3955.591965 174 174 174
-338.817239 1849.028969 4907.369614 226 188 169
-386.500263 1109.896755 3897.269440 198 196 193
-369.145846 1680.779648 4374.220276 82 67 63
-338.691688 -284.762216 4166.522980 95 105 107
-393.426204 1553.131580 3955.896759 35 38 47
-358.451557 68.615586 4029.777527 159 158 160
-377.217150 447.828627 3918.824387 129 119 114
-400.640774 1492.855167 3913.756180 181 172 162
-349.520683 1822.955513 4830.711746 242 214 189
-352.523041 1799.866486 4778.420258 249 218 200
-389.860582 555.141258 3836.909103 98 91 81
-389.860582 555.141258 3836.909103 98 91 81
-357.960868 1775.689125 4721.181107 140 113 115
-365.530562 33.019876 4038.859940 179 179 179
-356.541061 -256.926465 4148.076248 122 123 127
-390.494418 481.621122 3892.776108 116 111 108
-367.589235 1753.578377 4639.617920 252 219 199
-364.167309 1787.336540 4738.840485 122 93 90
-397.878242 530.633783 3864.907455 169 167 166
-399.017954 1653.546524 4257.122040 158 141 142
-410.320425 1190.630245 3962.560272 133 145 143
-410.320425 1190.630245 3962.560272 133 145 143
-582.960320 732.273197 1419.293213 30 36 34
-363.038468 1815.756226 4838.206863 115 96 89
-398.253489 405.672121 3937.260818 202 198 197
-394.885182 1670.917511 4371.595001 94 87 93
-422.134829 1400.146198 3923.347855 202 191 186
-422.134829 1400.146198 3923.347855 202 191 186
-376.960468 1761.375999 4668.058014 247 218 202
-373.677611 1783.301926 4724.201202 223 188 158
-394.389820 272.226191 4005.088806 144 142 142
-425.812387 1473.636150 3913.363266 83 85 83
-402.006292 300.618029 4000.634003 204 201 199
-402.061224 1678.541183 4393.672943 229 200 172
-405.119467 323.611927 3995.310211 136 134 136
-432.036257 1108.644104 3879.008865 202 199 194
-423.523092 540.600681 3860.629654 109 105 100
-378.915143 1804.986954 4790.920258 165 129 118
-402.400255 1703.178406 4455.250168 209 179 152
-402.798128 2.935073 4030.867386 171 170 172
-434.495783 1229.144669 3940.610504 104 109 111
-410.913467 196.276343 4006.263733 161 153 144
-412.513781 1675.264549 4361.870956 218 185 168
-412.513781 1675.264549 4361.870956 218 185 168
-397.212648 -163.346303 4105.128860 143 142 144
-379.533982 1835.937691 4861.955643 255 222 199
-425.762272 1639.910126 4221.586990 66 66 72
-412.953138 1687.904739 4421.720123 235 204 188
-431.732225 1615.650749 4165.922165 108 113 131
-376.868272 1852.108192 4935.922241 117 75 62
-444.697332 1238.178825 3936.038589 71 80 77
-444.503689 1219.475937 3949.291992 170 167 166
-402.752352 1751.914024 4624.935913 244 210 182
-443.182850 546.628428 3852.875519 130 119 116
-409.454107 -205.551815 4125.060654 156 158 158
-409.454107 -205.551815 4125.060654 156 158 158
-454.025412 1135.897255 3890.810394 105 104 97
-416.291857 1708.545303 4495.928955 70 51 51
-424.782372 1677.417374 4395.776367 105 83 82
-424.782372 1677.417374 4395.776367 105 83 82
-426.145172 60.373062 4032.064819 196 193 189
-382.650900 1861.421967 4975.179291 147 96 80
-425.081825 6.922133 4036.271286 175 178 178
-404.941273 1773.500252 4681.545258 224 193 166
-452.025509 1585.026169 4068.130493 39 42 49
-437.157345 1658.445740 4272.257614 249 229 208
-437.590551 1654.198456 4301.695633 249 229 208
-446.164417 374.252224 3941.375732 140 144 142
-421.603823 -253.503990 4148.814392 221 222 220
-408.566236 1784.623909 4746.242523 103 93 90
-445.865059 251.734424 3996.679306 123 123 124
-466.833782 1543.196964 4015.398788 31 30 33
-417.155170 1751.926422 4652.899170 215 185 166
-426.798058 1724.292564 4541.923904 234 205 178
-445.428991 1664.752579 4311.449051 96 83 85
-414.507055 1776.017189 4713.164520 246 216 189
-417.967367 1771.421242 4688.360977 230 201 182
-450.665379 225.714040 4008.980560 127 129 137
-429.644632 1732.993698 4568.447113 179 139 118
-463.588715 388.191748 3928.240967 192 191 189
-398.710608 1862.275124 4984.718323 149 102 93
-398.710608 1862.275124 4984.718323 149 102 93
-462.543058 1630.681419 4213.132477 65 61 61
-447.058916 1689.506912 4405.154800 224 199 181
-500.553083 697.032213 3605.194855 96 96 97
-432.182169 1737.035561 4602.400589 254 224 201
-406.481791 1850.762558 4925.663757 134 98 95
-445.404911 1694.906044 4456.086349 151 125 118
-445.404911 1694.906044 4456.086349 151 125 118
-422.063732 1793.192101 4752.257156 244 216 196
-409.662247 1846.933365 4923.983765 202 170 151
-475.103092 374.890137 3934.996414 137 139 140
-411.759996 1843.982124 4914.580536 128 83 76
-489.168024 1227.517033 3938.478088 92 96 98
-486.616468 1548.240566 4027.584839 55 58 67
-486.616468 1548.240566 4027.584839 55 58 67
-464.673376 -14.630167 4045.755386 172 172 173
-447.197962 -375.324392 4183.669662 213 215 215
-472.447729 154.575050 4014.848709 223 221 220
-488.950062 1190.895939 4012.589264 182 172 169
-463.543177 1677.992249 4399.696732 234 201 185
-474.047184 81.139439 4028.008270 168 167 167
-474.047184 81.139439 4028.008270 168 167 167
-481.966972 288.824391 3976.837158 181 181 181
-470.213127 1664.452744 4331.933594 70 59 58
-451.993418 1721.029854 4548.855972 253 219 198
-491.233063 434.552908 3914.648819 200 201 199
-452.029657 1720.250320 4551.697159 253 219 198
-499.406052 562.996387 3858.065796 139 141 139
-491.676474 348.271871 3930.328751 119 127 131
-508.446598 1113.879490 3878.569031 192 190 190
-486.983681 262.124085 3976.588440 180 180 178
-493.667650 368.063045 3922.892380 186 185 181
-459.425592 -410.680103 4203.879166 206 208 206
-494.160080 1618.315315 4160.502625 94 99 118
-512.374353 1101.634598 3894.470978 132 130 128
-501.213837 345.271230 3929.381180 114 127 138
-541.299677 952.792454 3602.632523 64 65 60
-517.801952 1537.081814 3947.634506 39 40 44
-501.573658 323.960686 3943.896103 183 184 182
-491.252708 95.107567 4019.458771 132 133 136
-501.530266 1612.302208 4149.583435 64 63 73
-430.815983 1843.255234 4926.609802 255 226 206
-507.504320 333.428574 3931.246185 122 133 142
-511.206865 417.092562 3920.275497 142 146 149
-506.921387 239.224410 3968.744659 141 144 145
-524.751139 531.322479 3863.135147 162 158 158
-524.751139 531.322479 3863.135147 162 158 158
-455.320740 1790.660667 4767.617035 78 73 82
-519.815254 254.995584 3953.797913 114 117 119
-497.622395 1673.460960 4372.458649 83 74 77
-481.033421 1721.330261 4550.741196 126 91 76
-527.496004 318.385792 3917.704391 161 175 179
-438.744354 1864.943314 4999.038315 132 87 62
-522.985172 176.788533 3968.027115 154 162 165
-450.139141 1859.617996 4905.983734 251 222 207
-509.412766 1654.400253 4307.351685 236 209 192
-531.777334 234.818411 3941.165161 139 148 157
-549.062252 1118.012714 3880.528641 154 151 149
-551.791191 1534.097672 3943.579483 34 33 37
-552.070951 1283.020496 3931.619263 178 174 170
-535.780811 168.101490 3971.798706 159 164 164
-570.166874 1022.786903 3758.219147 188 190 190
-544.239092 272.509837 3926.562119 118 130 139
-511.432695 -354.909086 4182.508087 152 157 157
-533.913755 1622.289276 4191.645813 166 172 189
-556.624985 1211.407089 3937.672043 187 176 171
-563.332558 1447.201633 3906.685638 103 102 106
-492.767429 1735.457993 4616.939163 179 134 131
-480.270100 1787.757492 4759.195709 252 222 205
-556.198978 288.648200 3903.210068 91 106 124
-484.997797 1768.805695 4728.514481 128 97 92
-570.454121 1360.752964 3918.954468 166 162 159
-501.061869 1729.380035 4598.200607 244 209 184
-547.247505 1615.486336 4166.841888 88 84 93
-547.247505 1615.486336 4166.841888 88 84 93
-546.312761 1623.186302 4191.382599 136 148 173
-557.509422 1586.879826 4086.851120 52 50 56
-536.386013 1655.139160 4335.463715 233 202 186
-487.230682 1794.170380 4794.694138 240 217 210
-580.590487 1367.665958 3918.122482 98 99 100
-506.934738 1756.660080 4679.193115 202 169 145
-593.537521 996.653557 3859.013748 201 200 200
-490.759802 1816.469955 4853.657532 212 182 161
-496.605206 1800.646591 4837.534714 240 220 203
-590.489292 1565.769672 4028.250504 109 97 93
-498.296452 1809.541512 4844.465637 120 89 89
-601.870728 1288.244247 3929.784012 95 96 92
-573.298311 -98.893595 4075.614929 165 168 169
-566.914034 1644.231033 4259.994888 66 65 61
-611.451149 1449.437904 3907.227325 68 73 80
-545.282555 1705.316734 4492.066956 131 89 83
-505.106258 1813.752937 4850.617599 230 198 187
-617.468834 1003.172207 3862.710571 110 114 112
-582.608986 1627.629852 4207.461548 245 233 240
-582.608986 1627.629852 4207.461548 245 233 240
-619.437599 1051.816463 3862.818146 187 190 189
-552.457476 1700.377083 4491.815186 226 195 177
-575.489330 -353.211999 4172.056580 152 161 165
-515.313292 1796.824265 4811.261749 252 233 226
-603.571224 1587.481689 4093.293762 65 57 63
-622.629261 452.784824 3873.668289 87 109 132
-623.927975 1311.096764 3922.057343 105 106 104
-565.784597 1689.829636 4437.733459 121 88 85
-570.513248 1684.080124 4426.817322 221 192 175
-564.984465 1699.288940 4489.076233 106 75 71
-511.085510 1841.384125 4931.745529 172 136 122
-591.365051 1652.617836 4282.450867 72 67 66
-638.961220 1052.863026 3870.380020 173 166 160
-592.469406 1646.392822 4275.233078 46 44 56
-521.887112 1813.644028 4849.070740 90 69 66
-586.585379 1658.792114 4339.022064 205 184 175
-568.646288 1704.696846 4502.522659 225 187 155
-586.328459 1663.249207 4370.988083 142 113 110
-646.328831 1382.067299 3908.454514 77 83 87
-644.856691 1357.060909 3919.820404 188 181 177
-644.856691 1357.060909 3919.820404 188 181 177
-610.146618 -226.997852 4132.139206 217 217 217
-599.216700 1659.297752 4334.478378 246 218 200
-523.267412 1835.882950 4932.784653 254 218 195
-580.380249 1690.575600 4497.727585 238 210 186
-580.380249 1690.575600 4497.727585 238 210 186
-618.919945 -201.921964 4121.955490 144 159 167
-618.919945 -201.921964 4121.955490 144 159 167
-660.206032 1454.505825 3901.981735 74 85 94
-543.203592 1794.834709 4813.435745 247 221 206
-585.184717 1705.206299 4502.135849 101 79 78
-568.025780 1737.864685 4665.732574 103 79 60
-673.707438 1045.470810 3867.989349 205 202 197
-602.691841 1676.304626 4421.607208 249 216 203
-597.409821 1684.574890 4464.205551 136 104 111
-626.403427 -353.688741 4178.017807 102 114 119
-676.236153 1045.905590 3867.537689 205 202 198
-676.236153 1045.905590 3867.537689 205 202 198
-675.430107 1512.252331 3902.535248 37 36 39
-630.901051 -317.051983 4174.748611 202 204 204
-620.072937 1657.585526 4324.857330 199 169 146
-550.879669 1806.914711 4843.346405 114 98 90
-582.032251 1725.747299 4612.324142 241 213 194
-673.475218 1328.402424 3925.146866 176 172 171
-544.291019 1819.451332 4902.683640 231 195 170
-577.765703 1740.382195 4671.913528 106 83 69
-640.885782 -306.421781 4151.836777 196 201 205
-685.367346 1022.778702 3864.373016 83 92 93
-587.566423 1742.847252 4626.037598 221 197 175
-641.494560 -432.087564 4180.525589 199 188 179
-675.778913 758.463526 3966.046906 194 196 195
-687.836838 1361.078644 3912.963867 208 195 187
-604.643106 1710.473633 4542.476654 242 208 184
-694.231415 1403.785896 3904.751205 105 108 110
-561.252642 1818.287086 4887.702560 217 185 159
-701.130009 1478.917885 3904.790497 160 157 153
-706.907177 1349.613953 3911.761093 178 169 162
-707.463598 1326.745892 3914.441681 93 100 99
-702.014637 785.275078 3948.286438 168 176 182
-575.112200 1808.114433 4852.520752 183 162 144
-579.643250 1796.157646 4823.213196 223 196 189
-671.177101 -370.079017 4170.942307 156 162 166
-617.333555 1721.377754 4572.105408 76 50 51
-625.328207 1709.228325 4530.785751 75 55 54
-721.162128 1019.102097 3870.397949 104 123 122
-721.041250 1033.583164 3873.263550 186 189 189
-665.697622 1641.815186 4265.610123 81 79 97
-720.208263 879.020691 3902.056885 52 58 71
-713.092279 771.181583 3952.409744 116 129 147
-728.546906 1082.438946 3857.437897 150 157 163
-720.303726 848.095512 3922.285461 149 161 173
-588.004732 1797.654724 4833.668900 167 140 141
-730.803680 994.248390 3871.739578 88 96 109
-646.992493 1683.539963 4452.421570 91 72 81
-727.159643 1334.396553 3912.144470 163 167 162
-640.719318 1699.485207 4501.895142 107 91 98
-679.999113 1635.526657 4254.626465 55 45 48
-727.933025 1204.684353 3932.395172 160 158 154
-616.918945 1751.080894 4680.144119 214 184 164
-733.665800 1342.326546 3911.991501 76 88 85
-733.665800 1342.326546 3911.991501 76 88 85
-693.006754 -401.888323 4191.544342 211 209 208
-636.061859 1720.166969 4583.587265 222 189 177
-636.061859 1720.166969 4583.587265 222 189 177
-742.028189 967.128468 3882.099915 200 200 198
-658.874893 1678.693581 4441.675568 234 204 179
-638.975525 1724.727821 4607.661819 202 172 153
-754.712009 1081.200981 3853.791046 174 177 181
-746.790600 1339.793110 3908.656693 160 161 155
-613.834810 1780.271339 4787.091827 205 174 155
-712.004185 -343.256640 4171.031189 151 157 155
-754.331493 1502.955246 3890.074158 103 106 103
-622.562790 1768.948555 4746.898270 127 89 68
-754.541636 1400.721169 3899.412537 61 66 67
-761.333323 906.027699 3861.082077 163 167 171
-582.655144 1857.939911 5014.751434 239 211 188
-702.676725 1632.720757 4271.552277 221 198 182
-760.211420 1319.561863 3913.714600 131 134 128
-587.836218 1859.298515 5020.289612 142 91 92
-662.183905 1711.424255 4551.753998 236 202 174
-672.753048 1690.444946 4498.140717 123 96 104
-765.028143 1300.325203 3918.462372 168 171 163
-767.128181 1361.409664 3906.983948 49 62 68
-781.926727 916.932964 3837.384415 61 63 72
-660.236502 1718.424797 4604.588318 229 198 171
-779.703808 857.497883 3869.855118 45 48 57
-686.966562 1687.928772 4464.580154 202 170 143
-791.022873 965.765572 3827.822495 36 43 50
-736.868238 -407.224369 4192.198944 206 208 206
-790.062857 1048.310661 3843.131256 59 73 75
-789.806414 839.068890 3870.843506 162 175 185
-742.934418 -364.519644 4183.645630 199 206 208
-661.504364 1739.499092 4653.283691 221 191 170
-717.915010 1649.478912 4309.938049 74 67 62
-652.546549 1758.901596 4713.076782 76 73 80
-804.451275 956.734467 3809.513474 93 110 121
-806.661224 984.285355 3824.139023 34 38 43
-653.532362 1762.920570 4747.987366 64 58 62
-690.065908 1700.088310 4539.732742 232 202 199
-712.557650 1669.134712 4404.281998 215 179 157
-673.505592 1737.179565 4648.302078 125 91 74
-816.052723 941.652107 3807.818604 60 65 76
-685.497522 1717.735481 4586.513519 233 198 183
-759.945869 -411.189604 4203.952026 201 197 192
-719.075060 1675.923157 4416.666031 97 79 82
-801.724815 1525.811481 3934.030914 81 82 90
-807.789803 1278.621387 3911.702347 56 73 67
-784.175253 -158.042347 4104.104233 188 199 198
-784.175253 -158.042347 4104.104233 188 199 198
-688.013124 1733.412552 4633.446884 111 83 82
-776.729441 1603.235245 4158.720016 207 198 195
-696.405554 1728.598213 4630.279922 230 201 184
-696.405554 1728.598213 4630.279922 230 201 184
-696.405554 1728.598213 4630.279922 230 201 184
-642.862988 1830.191612 4942.489624 100 62 44
-786.244488 -332.866096 4178.593063 175 183 182
-841.423416 722.899914 3858.845520 94 105 119
-800.428677 -295.746660 4162.002182 134 147 151
-843.202305 1122.535038 3879.353333 145 131 113
-802.570915 -349.342775 4165.786743 88 104 101
-638.856649 1857.475471 5029.581451 233 203 193
-868.214512 891.260910 3769.758987 81 96 107
-756.710005 1662.969017 4374.816513 217 186 167
-856.227303 1074.358082 3837.071609 84 103 108
-856.227303 1074.358082 3837.071609 84 103 108
-806.233025 1585.662651 4114.908218 73 68 71
-639.803171 1862.859344 5045.496368 127 98 99
-812.454796 -307.539582 4158.238983 183 186 184
-812.454796 -307.539582 4158.238983 183 186 184
-734.756470 1696.972466 4521.248627 234 206 183
-697.498083 1754.608536 4728.567505 81 72 68
-873.634338 853.340054 3776.935577 100 111 121
-751.411963 1684.370232 4434.762955 97 75 78
-880.094624 885.215092 3758.678818 148 159 169
-740.415144 1690.194321 4511.864090 86 61 56
-870.498848 1088.081932 3827.186203 132 140 143
-758.352423 1676.365662 4427.861023 220 194 166
-645.477200 1868.122673 5052.793503 214 178 156
-656.732893 1853.952026 5008.414459 251 219 198
-819.433594 1588.293362 4132.000351 59 56 61
-900.230694 883.371639 3722.174454 85 94 108
-673.789597 1823.296356 4931.482697 84 72 61
-821.520901 1603.782463 4131.599426 80 78 92
-699.316835 1783.245468 4817.909622 81 62 62
-661.894512 1867.210770 5033.468246 225 193 177
-812.936497 1627.068901 4240.310669 249 251 253
-660.407543 1861.623955 5058.082962 225 193 177
-660.407543 1861.623955 5058.082962 225 193 177
-688.795424 1810.627174 4917.377853 77 71 77
-688.795424 1810.627174 4917.377853 77 71 77
-725.995493 1749.783134 4731.068039 233 204 182
-704.904270 1792.081642 4850.151825 220 188 176
-912.728500 1085.964966 3782.603455 109 127 128
-888.521481 1336.714077 3907.125473 54 76 68
-889.967442 1382.954311 3897.481537 193 183 177
-888.327503 1336.545849 3909.134674 54 76 68
-747.166443 1722.676468 4642.598343 240 203 181
-671.624279 1856.135559 5039.026260 228 199 184
-893.534660 1397.028542 3894.749069 203 192 184
-894.618225 1140.004826 3906.540680 183 177 171
-894.885349 1365.218067 3898.170853 48 64 60
-923.206711 1092.457104 3777.667999 47 56 48
-724.208117 1776.888657 4795.986557 74 68 83
-931.741428 1072.170353 3750.875473 108 121 129
-932.360172 1088.028049 3755.603409 60 65 56
-820.346260 1645.813179 4310.883713 115 106 113
-679.620457 1858.375549 5041.194153 102 77 82
-1499.454975 248.165178 935.736942 190 173 166
-712.857389 1805.477333 4892.748642 91 71 63
-679.443884 1865.843391 5066.100693 97 65 63
-679.443884 1865.843391 5066.100693 97 65 63
-736.570215 1773.329163 4777.046204 91 86 95
-1451.835346 749.348879 1172.625065 130 110 98
-740.090084 1769.232178 4765.968704 88 68 72
-915.903950 1454.570198 3888.495636 84 90 83
-1497.218800 680.852509 969.599342 146 117 110
-686.482811 1861.228943 5052.472687 225 194 175
-1439.421368 793.464088 1285.378456 150 124 110
-834.126472 1650.123978 4318.843079 211 182 161
-834.126472 1650.123978 4318.843079 211 182 161
-1459.609413 763.883066 1206.970310 41 38 37
-1459.609413 763.883066 1206.970310 41 38 37
-777.304411 1720.771980 4612.826157 227 191 160
-781.463337 1714.644623 4596.084976 89 54 55
-925.343895 1439.041328 3890.642166 170 164 162
-769.274426 1736.734390 4665.789032 249 215 191
-801.024437 1693.324089 4508.723450 78 55 56
-927.399826 1428.183365 3889.451599 202 186 174
-927.455997 1283.495235 3904.438019 90 101 98
-914.288235 18.460046 4053.796387 129 127 133
-722.355461 1817.498398 4923.081970 120 79 79
-1437.602139 838.695908 1435.132885 55 41 32
-859.128094 1638.561630 4298.661423 65 62 75
-1544.679642 -413.516760 1093.786716 151 193 214
-740.787029 1807.884407 4897.226715 218 186 166
-950.406551 1331.871033 3899.858093 168 170 164
-1501.969433 782.568502 1246.787739 171 134 109
-936.032009 1144.273472 3989.334869 154 156 155
-755.301332 1776.501846 4834.274292 75 62 61
-915.558243 -396.586204 4191.069031 114 137 143
-1483.586884 809.383297 1344.251919 43 37 36
-951.982498 1260.918903 3908.201218 61 70 67
-953.020477 1279.922676 3906.055450 152 151 145
-956.541348 1394.027424 3891.732025 59 60 51
-952.910900 1183.834934 3924.313736 111 120 114
-829.921818 1687.179756 4501.483536 244 208 189
-960.970879 1507.394600 3879.635239 57 54 59
-869.010925 1645.647240 4330.791473 57 54 63
-869.010925 1645.647240 4330.791473 57 54 63
-940.619469 -184.435213 4111.019897 150 157 160
-965.211105 1361.237144 3889.178467 55 68 65
-899.665546 1598.485374 4192.189407 72 65 77
-903.953171 1600.765800 4171.401978 64 59 67
-929.116535 1566.566753 4052.259445 70 56 57
-962.936020 1175.130272 3923.375702 169 169 161
-861.657047 1658.293533 4380.887985 73 62 62
-1379.293442 979.621506 1946.767044 181 149 126
-784.553862 1755.344391 4749.506378 227 196 174
-1478.647709 860.278988 1489.062405 172 146 128
-968.349457 1259.052753 3907.287598 161 161 156
-1416.844559 952.362823 1801.826096 64 57 46
-1416.844559 952.362823 1801.826096 64 57 46
-973.654270 1479.859734 3883.072662 74 72 78
-772.235584 1781.231499 4826.498795 99 79 83
-1441.022301 918.748665 1700.211525 55 48 39
-974.547100 1496.222019 3882.392883 127 123 125
-973.876572 1338.431740 3900.555038 49 54 54
-1540.789795 781.728172 1246.357536 83 67 59
-1461.009693 901.544476 1642.040062 163 136 116
-785.014629 1767.254639 4783.562469 218 188 170
-1559.451866 744.533443 1200.984573 36 30 33
-923.562336 1584.231091 4145.362091 57 49 55
-1396.663952 986.518097 1956.008339 25 23 22
-982.618999 1349.095535 3897.410965 163 163 162
-982.618999 1349.095535 3897.410965 163 163 162
-1365.705395 1045.042896 2117.992210 208 196 192
-827.560329 1715.356064 4607.044220 224 194 171
-827.560329 1715.356064 4607.044220 224 194 171
-1382.719421 1010.200500 2052.759171 166 131 107
-950.582314 -400.189018 4189.705658 99 125 130
-1551.539898 790.474606 1287.744141 152 119 98
-967.889595 -110.113299 4089.960861 209 210 209
-1407.953358 974.709892 1951.825905 164 137 122
-1407.953358 974.709892 1951.825905 164 137 122
-984.723377 1173.431587 3920.866776 162 158 157
-1564.288998 774.702215 1237.350941 138 106 88
-803.008080 1751.927757 4738.045502 213 184 165
-828.434086 1725.949287 4621.377945 72 62 73
-816.477394 1739.102554 4687.173462 101 64 62
-926.615715 1600.298119 4188.854980 79 67 86
-1520.054626 845.136166 1487.447262 149 125 111
-1421.332645 984.495163 1952.397346 16 18 19
-1488.420677 904.500484 1651.278496 45 41 40
-997.475815 1344.140530 3893.695831 79 87 83
-1423.995113 1006.497955 1955.227280 166 132 109
-1530.195045 857.970428 1488.605499 38 33 30
-847.585106 1700.200462 4576.633835 232 199 179
-847.585106 1700.200462 4576.633835 232 199 179
-1462.941360 949.104595 1803.099823 60 54 41
-1002.770805 1480.670738 3883.523560 156 151 149
-831.353092 1730.306435 4656.209564 233 196 161
-909.517193 1636.036873 4308.343124 82 70 70
-1438.901711 969.814873 1926.705551 178 150 124
-1635.092735 710.505629 1049.564743 24 22 22
-883.583641 1673.269463 4431.928635 67 66 76
-992.753124 -27.171192 4062.855148 122 121 124
-992.753124 -27.171192 4062.855148 122 121 124
-1546.098232 854.595375 1462.278748 41 38 43
-986.416054 -125.255752 4105.009079 116 118 125
-793.380117 1790.200043 4850.010300 236 217 209
-1599.557114 789.785337 1246.859074 169 136 111
-974.017811 -402.892017 4202.874374 177 184 184
-978.386211 1558.675671 4035.128784 37 36 37
-853.763390 1713.319397 4597.481537 125 97 91
-852.635574 1711.794281 4607.644653 125 97 91
-1629.399300 763.807154 1188.279819 37 29 26
-1429.213142 1023.869991 2071.135330 80 65 57
-899.536133 1671.745872 4412.588501 227 200 183
-949.172306 1598.931789 4197.623444 59 60 73
-1196.538734 1313.096428 3103.746605 200 169 140
-909.043694 1659.733200 4377.529144 51 50 58
-1593.847370 818.839550 1362.806225 24 23 23
-1593.847370 818.839550 1362.806225 24 23 23
-1593.847370 818.839550 1362.806225 24 23 23
-750.441360 1864.058495 5079.973602 229 196 180
-888.153172 1686.230469 4476.351547 100 64 44
-1463.001251 1008.795929 2001.857567 159 133 108
-1385.708046 1098.574829 2340.611649 53 44 44
-882.883644 1695.420456 4533.122253 90 64 65
-1661.634445 749.373484 1160.428047 51 46 48
-1518.290424 939.022350 1781.231117 81 66 57
-860.337448 1726.711273 4639.987564 87 61 71
-1226.616287 1292.993164 3050.498390 194 170 157
-1273.423386 1233.400917 2863.077545 180 146 118
-800.589085 1804.986763 4910.369873 132 93 90
-1168.218231 1373.744965 3321.411514 102 86 89
-1168.218231 1373.744965 3321.411514 102 86 89
-1645.653725 792.510986 1266.903019 150 120 98
-763.017082 1861.234665 5080.999374 218 184 171
-1206.376457 1332.786846 3176.598167 65 61 66
-1494.672203 981.561756 1947.281265 166 135 112
-1494.672203 981.561756 1947.281265 166 135 112
-1416.516495 1058.697319 2295.573807 197 183 174
-912.705040 1676.309586 4453.596497 235 205 187
-947.167015 1635.655403 4307.184982 106 126 161
-963.858604 1620.436859 4241.641617 96 112 148
-1554.136467 926.064205 1719.491005 77 66 62
-818.733025 1793.098640 4866.929626 163 129 109
-1402.543831 1103.632736 2373.071480 70 62 63
-1676.979828 759.245014 1207.460690 27 29 35
-929.890537 1658.786392 4394.483185 236 212 190
-1373.705196 1138.488770 2510.228348 65 55 52
-885.548401 1707.293129 4590.984344 224 192 168
-1712.145805 719.347239 1081.355762 126 104 91
-1217.572784 1339.912510 3186.900902 202 194 191
-1233.926010 1310.948086 3118.318367 65 56 51
-978.558922 1613.198090 4205.826950 59 60 75
-1260.330963 1285.789585 3025.743484 201 173 148
-1161.364079 1403.503418 3444.770813 28 28 30
-1677.742958 791.367722 1271.832371 44 43 39
-1677.742958 791.367722 1271.832371 44 43 39
-941.650772 1654.420090 4380.313110 116 93 99
-937.570477 1665.171623 4397.416687 231 205 187
-1637.000656 842.847538 1458.676910 160 131 108
-1669.804573 779.006433 1333.101273 47 38 33
-829.524899 1794.340897 4865.807724 52 41 35
-1622.880745 871.856117 1537.565327 32 27 26
-1622.880745 871.856117 1537.565327 32 27 26
-1749.428940 701.805925 1009.523964 21 21 22
-1560.963631 946.928501 1805.008125 166 139 122
-936.523056 1666.743851 4422.894669 232 211 194
-915.008354 1692.749596 4516.467667 209 176 149
-1328.641224 1199.261570 2789.851379 186 154 129
-848.320770 1765.491676 4800.995636 223 192 161
-899.414921 1705.792618 4587.983704 229 201 177
-1542.206669 980.904865 1903.457642 173 142 116
-833.454227 1777.196503 4866.928482 241 216 205
-1585.838413 924.745178 1726.022530 47 40 36
-1515.453815 1008.354568 2032.273483 34 34 28
-1706.357956 798.505402 1242.935371 148 120 101
-1712.322617 777.222061 1229.525471 31 30 32
-1059.860706 -35.390830 4077.653503 170 170 170
-1059.860706 -35.390830 4077.653503 170 170 170
-1324.273682 1212.005806 2848.479271 57 49 41
-1324.273682 1212.005806 2848.479271 57 49 41
-1332.515907 1223.301888 2824.486351 202 172 145
-925.617790 1692.388725 4518.973923 218 189 158
-925.617790 1692.388725 4518.973923 218 189 158
-1400.501251 1159.010410 2562.821579 192 160 138
-1065.549374 -117.489529 4102.086258 207 205 204
-949.899673 1672.521782 4427.496719 81 64 72
-791.593409 1862.067223 5082.223892 230 198 168
-1282.762337 1299.029255 3068.857956 92 79 70
-918.154335 1698.873901 4566.962051 227 192 162
-1009.502125 1606.529427 4190.702057 84 75 83
-1251.492596 1331.886864 3199.052048 243 234 231
-1226.802158 1369.122028 3309.131241 43 39 42
-1646.045876 896.962643 1627.534294 150 124 104
-1021.882153 1597.534466 4166.993332 228 197 177
-870.207310 1759.902000 4790.720367 90 78 69
-1310.214138 1287.835217 2999.636459 191 163 145
-913.531017 1716.945839 4619.398117 83 62 60
-1019.254589 1606.568718 4194.429398 69 62 78
-947.128773 1687.047386 4487.089157 78 71 75
-1573.725891 999.171257 1961.837196 48 38 31
-801.188469 1862.877274 5088.348389 129 75 63
-1465.951538 1113.016129 2410.043716 184 155 133
-1375.906754 1217.456818 2775.958443 42 37 39
-1742.198372 810.923004 1311.694717 141 122 113
-876.209641 1768.815994 4802.513123 239 204 186
-1523.222065 1077.916813 2209.029770 184 159 140
-1187.155724 1437.028790 3557.974243 34 34 36
-807.317352 1858.984947 5082.741165 242 209 185
-1518.865299 1077.470589 2234.356117 184 159 140
-806.752586 1858.255196 5087.647247 242 209 185
-1849.554634 688.977480 923.406124 21 17 21
-806.737995 1866.065025 5096.402359 239 205 179
-813.751411 1853.991508 5069.507980 242 212 192
-1642.342567 947.793961 1775.302505 168 138 118
-1449.255943 1145.955563 2543.387604 56 54 49
-833.068752 1832.168770 4995.373154 249 214 191
-1400.846863 1203.162575 2741.280746 192 160 134
-969.930935 1674.729156 4458.355713 105 107 104
-1686.194420 896.214867 1619.159508 48 42 40
-1381.659412 1240.810871 2833.039284 186 157 129
-1089.273930 -391.674590 4186.866760 153 168 172
-1477.928734 1130.968952 2462.256241 183 148 122
-814.769363 1858.250999 5088.581467 122 80 69
-876.496792 1790.071297 4845.788956 61 60 58
-985.113144 1671.524429 4428.775024 109 105 100
-1023.093510 1625.982285 4281.172943 46 41 51
-955.415058 1697.542191 4550.239944 70 59 68
-830.556297 1845.476723 5040.546036 135 93 68
-1214.125252 1426.433468 3533.916473 175 141 116
-1335.381031 1263.365936 3084.128571 198 167 142
-1875.340462 704.609728 983.245468 23 24 27
-1659.203529 962.569523 1822.227478 173 144 123
-1847.790718 732.896519 1095.591164 132 115 102
-1792.967224 806.804752 1307.617664 23 22 22
-1327.925110 1308.410263 3119.921303 79 79 86
-1196.164799 1456.218815 3634.517670 49 42 40
-832.528019 1851.427841 5052.851868 225 194 171
-1308.745670 1333.108711 3203.346634 237 232 230
-1017.690468 1638.369179 4339.530945 83 86 118
-1429.825974 1220.594311 2749.116516 49 49 57
-1030.814552 1632.626343 4305.776596 217 203 194
-1007.160473 1655.748367 4399.187088 197 182 172
-1007.160473 1655.748367 4399.187088 197 182 172
-1525.292206 1104.703236 2400.454903 133 106 89
-1225.381470 1434.246635 3560.193253 76 57 49
-1505.691051 1144.527340 2514.790726 189 158 137
-1505.691051 1144.527340 2514.790726 189 158 137
-877.257156 1811.878014 4927.404404 243 211 187
-1032.036209 1639.081383 4336.447144 73 66 77
-1784.232903 857.671642 1469.989300 156 127 106
-1152.422810 1505.748177 3887.347031 107 101 94
-873.604965 1805.269814 4955.442810 243 211 187
-1141.556072 -126.235676 4107.312775 140 150 153
-1464.089489 1193.801498 2718.708038 186 160 136
-1239.688396 1443.629074 3570.949936 190 152 117
-923.241806 1758.298492 4775.061798 80 81 79
-979.764652 1699.416733 4560.517502 238 206 178
-948.718166 1730.274773 4680.032349 244 210 187
-923.852634 1752.997208 4777.730179 74 57 45
-1563.933372 1104.532623 2357.397652 102 82 79
-1563.933372 1104.532623 2357.397652 102 82 79
-1214.665699 1458.478451 3686.399078 180 144 120
-931.810379 1747.125053 4764.765930 92 63 64
-905.253506 1787.689400 4863.943481 232 200 174
-1548.998737 1128.397655 2450.896454 182 155 128
-1548.998737 1128.397655 2450.896454 182 155 128
-897.654915 1799.185944 4899.229813 231 200 186
-1206.904984 1471.982479 3744.812775 24 26 29
-1631.591606 1050.025082 2153.378296 176 149 118
-1846.672440 823.766327 1352.783966 83 68 62
-1246.455193 1445.283985 3604.410553 189 153 123
-872.285080 1831.116295 5005.759811 72 67 69
-872.285080 1831.116295 5005.759811 72 67 69
-1264.536762 1410.853958 3544.143295 189 157 130
-860.555840 1852.713394 5053.744888 244 208 184
-982.151222 1711.786270 4605.803299 226 194 166
-969.522476 1718.502998 4656.789017 169 130 110
-1773.807526 911.062717 1665.042305 45 44 44
-1672.297668 1014.126015 2049.488068 51 51 43
-1018.191814 1681.685066 4483.186340 89 65 66
-1101.618671 1598.787689 4181.667328 218 192 170
-854.422379 1857.645798 5097.446442 245 208 184
-902.925968 1800.911713 4918.636322 115 60 48
-982.666016 1715.598297 4624.398041 119 78 71
-1176.698399 1522.658730 3911.083221 60 52 56
-1771.375084 926.518250 1720.776939 56 45 41
-936.206913 1772.776031 4804.754639 210 181 156
-1048.061275 1654.275703 4394.476318 65 59 70
-1048.061275 1654.275703 4394.476318 65 59 70
-1837.737656 857.950020 1487.608242 162 135 119
-1062.819481 1632.628250 4347.640228 210 205 198
-1365.303040 1347.132111 3244.141006 208 197 191
-877.445221 1841.764641 5035.136414 232 197 156
-1995.227623 684.028292 945.338058 28 22 24
-1919.082642 804.654789 1234.282589 50 48 49
-954.189110 1747.610664 4765.375900 244 211 188
-1223.666191 1472.970200 3781.616211 101 115 135
-1071.197033 1625.328636 4340.381622 224 202 190
-1011.852169 1700.900269 4565.869522 125 92 74
-1011.852169 1700.900269 4565.869522 125 92 74
-1029.562759 142.840886 4678.743362 18 23 21
-927.337837 1791.027641 4876.729965 214 185 160
-1572.804451 1150.525379 2529.988861 189 157 130
-1189.529037 -129.665673 4107.786560 157 167 167
-1189.529037 -129.665673 4107.786560 157 167 167
-1956.893730 757.290316 1155.161285 132 108 96
-2011.025620 687.572050 974.552727 26 30 30
-1854.288673 873.225117 1539.886761 169 134 116
-1916.687393 806.312275 1315.597343 139 114 97
-1272.981834 1451.297188 3653.550720 63 59 38
-1048.201847 1668.287086 4468.644714 224 195 172
-1629.712868 1113.601875 2379.658890 183 150 126
-947.197819 1778.337097 4839.540863 65 58 66
-1144.149113 1584.941101 4139.915085 202 186 172
-1009.630966 1715.011978 4624.069214 104 68 69
-1340.282917 1398.450089 3440.360260 53 50 54
-965.648460 1757.545662 4786.713791 70 66 57
-1299.626255 1436.863136 3594.832230 195 156 119
-1343.055820 1390.713406 3440.305328 48 39 43
-1193.224239 -408.720207 4198.653412 135 154 156
-1529.092503 1216.422749 2790.382195 74 60 55
-1572.616005 1179.586697 2648.879623 77 62 61
-1572.616005 1179.586697 2648.879623 77 62 61
-1270.655918 1465.479851 3725.899887 190 156 127
-2008.421898 741.940165 1123.916340 30 21 23
-911.298847 1828.649902 5009.257889 186 150 134
-911.298847 1828.649902 5009.257889 186 150 134
-1073.661137 1656.185913 4442.494583 216 182 162
-1430.286598 1326.449776 3186.253929 229 214 208
-975.848293 1762.697411 4798.190308 197 169 147
-1995.108414 788.167000 1219.061756 154 124 104
-1006.836510 1725.811005 4690.191650 111 86 84
-969.574070 1772.317314 4824.787521 85 67 62
-1029.223347 1715.822411 4615.440750 96 66 67
-993.875599 1747.427368 4741.632843 226 193 170
-1234.623528 -85.436046 4085.576248 17 21 14
-1128.233624 1613.871384 4279.328156 92 81 82
-1230.291080 -77.612168 4107.345963 17 21 14
-1373.802376 1389.360523 3428.041077 52 46 47
-1049.832153 1698.259544 4560.287476 74 62 66
-1936.581993 859.854794 1468.836117 100 83 78
-1826.179886 965.914726 1860.659981 168 136 117
-1220.644188 -380.169153 4195.186996 130 142 148
-1090.999985 1647.926140 4427.590942 225 201 189
-1311.737347 1447.418404 3660.882187 182 149 120
-1177.477360 1575.278759 4134.406662 62 57 71
-1975.715637 833.197594 1370.710945 78 62 51
-1090.740776 1658.407402 4440.742874 88 62 72
-1443.962955 1332.926178 3216.889191 60 68 95
-1001.466942 1750.146484 4750.287628 226 193 172
-1001.466942 1750.146484 4750.287628 226 193 172
-1032.082939 1716.014862 4659.158707 235 203 181
-1470.654202 1315.485668 3151.296997 64 61 71
-925.642490 1828.573418 5030.601501 245 213 190
-1177.370644 1591.336918 4171.384811 52 49 57
-2062.097359 735.841656 1163.733673 30 32 32
-1247.238541 -331.764126 4173.450470 185 189 190
-1291.817760 1489.937115 3817.782974 191 166 148
-1233.855343 1552.264786 4023.894119 196 177 166
-1264.576149 1520.319366 3923.552704 66 57 57
-1130.985069 1639.530754 4377.056503 93 73 74
-1130.985069 1639.530754 4377.056503 93 73 74
-1029.307175 1742.594337 4738.948059 70 55 52
-1153.921413 1619.396400 4322.133636 238 206 187
-984.506321 1803.823853 4888.996506 243 209 186
-1266.366673 -335.971785 4178.444672 75 87 93
-1266.366673 -335.971785 4178.444672 75 87 93
-1264.052200 -397.248697 4202.104950 80 97 101
-1328.697872 1477.321339 3753.792572 200 166 139
-1447.518635 1369.863796 3362.490845 195 166 148
-1381.350613 1441.930008 3583.926010 26 22 23
-1090.182877 1687.132072 4560.408020 73 54 56
-1032.285690 1749.422646 4758.512497 240 210 180
-1201.224804 1597.491741 4197.309113 65 65 67
-1273.946953 -372.865272 4191.175842 185 188 190
-1194.231224 1584.267235 4229.727173 82 81 91
-1233.266735 1563.977242 4101.343918 168 148 135
-1276.410675 -419.453764 4199.462891 126 138 136
-1282.516098 1526.357841 3942.948151 133 115 106
-1282.516098 1526.357841 3942.948151 133 115 106
-954.445648 1820.030022 5035.223389 225 189 163
-1128.258514 1663.652229 4460.993195 229 196 177
-1889.185905 991.160488 1947.175217 174 145 123
-1295.778656 1519.166470 3913.856125 55 50 56
-1295.778656 1519.166470 3913.856125 55 50 56
-948.631287 1834.513092 5061.024475 215 176 138
-1782.614517 1086.464691 2312.296867 175 151 123
-935.440350 1864.802361 5102.637482 250 214 191
-1371.151066 1457.702160 3667.955399 175 143 118
-951.420212 1825.812149 5054.230499 138 119 104
-1102.544403 1691.823959 4560.049057 226 196 157
-1212.125111 1603.997231 4198.242950 161 161 172
-1473.817348 1361.246204 3342.491150 201 176 161
-1440.293884 1388.475609 3465.726852 211 184 158
-1185.445499 1615.987587 4305.520630 83 70 71
-1280.859470 1543.129826 3997.063446 54 44 46
-1776.829720 1110.342693 2384.321594 181 156 134
-1838.468742 1060.592461 2191.401291 64 51 37
-1315.669537 1511.576176 3896.773911 58 47 51
-1570.651245 1314.995766 3067.375374 227 222 225
-1022.377205 1776.218033 4855.761719 119 80 68
-1334.673023 1495.371342 3844.113159 192 164 137
-961.151981 1828.233147 5059.130478 208 169 127
-968.762207 1812.488365 5041.343307 232 198 179
-1511.061954 1345.271301 3285.543823 51 40 41
-1195.403767 1613.816261 4309.947968 232 214 197
-1155.285454 1659.869576 4447.282410 223 196 178
-2199.645233 737.148285 1082.094002 117 100 95
-1849.322701 1072.288132 2217.847824 171 137 111
-1101.400089 1705.543518 4635.348129 243 212 191
-1822.576141 1090.151787 2317.457581 63 48 31
-1417.265129 1426.224041 3629.074097 196 163 133
-1684.738350 1213.648510 2785.326576 177 146 126
-1684.738350 1213.648510 2785.326576 177 146 126
-1330.903339 -134.236491 4128.067398 20 22 19
-1324.616718 -123.657858 4155.625534 20 22 19
-1924.782181 1017.851353 2034.624863 68 60 59
-1637.803459 1261.945820 2949.550819 216 211 207
-1113.658905 1692.470169 4624.148178 232 203 179
-1395.985699 1471.352291 3722.284698 71 54 58
-969.187164 1838.851738 5091.799164 236 201 174
-1794.173813 1129.853821 2476.898766 174 142 126
-2123.389816 847.073841 1439.079189 146 121 108
-1451.125240 1419.320488 3570.053864 93 70 62
-1322.409534 1532.353306 3977.655411 72 54 43
-2139.107895 830.767441 1398.958778 48 38 33
-968.438530 1846.208572 5102.911377 249 216 195
-1689.032173 1229.603672 2830.904579 184 153 130
-1689.032173 1229.603672 2830.904579 184 153 130
-1021.905518 1803.434753 4938.810730 230 198 175
-1992.569733 974.640942 1879.772949 163 131 108
-1066.814995 1749.610329 4803.893280 83 78 81
-1806.332016 1136.617374 2475.165176 95 78 66
-2237.360382 754.912233 1136.110783 144 121 106
-1518.390179 1378.419018 3392.299652 66 70 69
-1972.366333 1004.959011 1985.332489 159 130 110
-1972.366333 1004.959011 1985.332489 159 130 110
-1743.918800 1194.490147 2707.376480 186 154 128
-963.519669 1869.288445 5146.705246 228 196 177
-1352.355671 -430.039120 4191.296768 155 157 154
-1037.214088 1796.913910 4928.520584 89 77 80
-1181.142902 1673.592758 4490.028000 81 68 68
-997.654343 1836.349487 5059.912872 226 198 170
-1670.062637 1271.837902 2979.961395 251 249 250
-2208.946228 808.658504 1316.111565 161 128 104
-1085.840988 1750.936699 4793.516159 79 75 66
-1980.587769 1009.966564 2026.764107 170 132 113
-1980.587769 1009.966564 2026.764107 170 132 113
-993.686962 1832.255745 5081.878662 226 198 170
-978.590393 1856.419754 5128.966141 61 48 39
-1540.480614 1382.624531 3404.692841 38 30 39
-1940.024185 1043.180943 2176.537323 167 137 116
-988.751698 1850.004959 5105.996323 101 60 55
-1383.697128 1509.871101 3894.366074 81 59 60
-976.543617 1862.340546 5146.651459 224 190 159
-1842.263794 1138.905811 2490.212440 56 49 42
-1365.647507 -405.162430 4209.851837 96 110 113
-1517.564011 1392.817307 3491.798782 194 165 143
-1688.774300 1263.653088 2970.340919 107 109 112
-1860.385132 1123.242474 2452.420044 184 152 128
-1311.483574 1570.957661 4143.876266 85 81 95
-979.145622 1871.476555 5157.906723 129 95 84
-1700.037384 1274.874210 2971.051788 251 254 254
-1700.037384 1274.874210 2971.051788 251 254 254
-1071.897030 1782.736778 4884.429550 245 211 186
-1236.326027 1634.677696 4392.100906 65 53 52
-1236.326027 1634.677696 4392.100906 65 53 52
-1728.380966 1242.899609 2899.212646 170 149 132
-1044.641495 1813.698769 4972.567368 237 206 188
-1681.159592 1286.652279 3044.603348 189 170 158
-1281.944752 1609.222603 4258.538818 250 250 252
-1298.485470 1595.286179 4208.543015 245 247 251
-1333.161068 1568.614101 4112.991333 210 208 202
-1001.164055 1851.424980 5116.786194 224 188 165
-1322.583294 1572.589684 4152.301025 104 96 92
-2230.094719 845.925045 1421.154213 138 116 95
-1830.540466 1171.080399 2623.045731 182 149 121
-1579.783440 1372.253323 3383.749390 206 176 150
-1209.733200 1673.298264 4497.680283 237 205 186
-1187.426090 1693.600273 4568.428802 100 58 47
-1397.823334 -353.292227 4190.857697 22 56 54
-1397.823334 -353.292227 4190.857697 22 56 54
-1531.656837 1418.958378 3550.682449 45 38 40
-1001.027012 1857.000923 5138.768387 216 183 162
-2214.371109 870.232391 1515.404034 71 56 52
-1315.322495 1592.124271 4202.619171 110 118 138
-1396.975708 -430.844641 4223.321533 196 198 197
-1187.720490 1700.832939 4586.364746 225 197 172
-1538.347721 1402.099133 3544.987106 47 48 46
-1384.705925 1535.961723 4011.294556 124 94 78
-1252.017117 1637.843704 4410.927582 71 54 53
-1129.282475 1740.670967 4777.123642 223 194 164
-2262.685013 854.902172 1426.036358 161 132 111
-1240.722847 1652.044678 4459.870148 231 200 170
-1727.020073 1271.611691 3041.465950 254 255 253
-1269.398308 1640.646935 4392.486191 86 58 69
-1842.967987 1194.946766 2721.073914 186 155 133
-1018.609905 1853.816986 5137.823868 241 208 184
-643.140316 701.460218 6515.374756 17 22 22
-1054.047012 1826.384163 5040.342331 215 184 170
-2083.957672 1023.659515 2036.547279 164 132 107
-1914.789009 1150.199986 2531.417274 170 137 113
-1973.114204 1103.681469 2371.638298 175 144 121
-1166.968346 1729.057884 4722.648621 67 47 47
-1519.346619 1447.662067 3697.329712 53 39 40
-1148.221970 1744.488716 4782.042313 93 86 76
-1155.274773 1740.138245 4762.361908 227 197 171
-1990.888786 1094.880295 2335.611153 165 136 113
-1034.878159 1846.318626 5111.948776 117 63 53
-1680.618668 1329.395008 3239.384460 82 70 72
-1173.497200 1720.882416 4716.431427 217 190 169
-1514.613819 1455.197048 3741.132355 189 154 118
-1077.254677 1828.312683 5011.160660 225 192 172
-1953.628540 1152.527618 2492.528534 150 123 103
-1971.921730 1127.896595 2463.954544 55 54 53
-1457.006741 -367.896175 4206.441498 185 190 189
-1779.984093 1273.964596 3021.225357 252 254 253
-1173.202991 1741.598129 4760.176086 78 70 68
-1526.618767 1460.204792 3752.836990 197 162 134
-1324.060535 1638.301468 4335.673904 131 132 161
-1989.828491 1186.407089 2431.403542 175 144 119
-2020.449829 1089.334488 2355.800819 179 150 129
-1848.867226 1228.251171 2843.843842 174 141 121
-1592.136002 1427.473259 3587.842941 76 61 33
-1228.695774 1702.223206 4622.438431 228 200 182
-1076.454830 1827.017593 5055.204391 218 190 176
-1597.405624 1418.676472 3581.764603 50 39 23
-1214.658070 1720.579147 4671.455383 212 181 161
-1303.102016 1641.341591 4425.238419 219 187 168
-1965.264893 1153.946590 2553.941727 64 49 48
-2194.799232 990.042019 1908.708954 57 54 52
-1394.733429 1572.422600 4170.825577 253 252 249
-2033.506203 1095.860386 2368.582535 54 44 41
-1536.179543 1470.504379 3771.529388 207 169 139
-1474.503040 -366.951966 4212.989044 32 46 42
-1613.924217 1412.298298 3558.043671 204 169 141
-1078.504562 1832.033730 5070.631027 98 76 61
-1157.339668 1766.104126 4851.045609 235 205 177
-2155.106926 1025.257874 2049.268723 141 115 95
-1687.387657 1369.925785 3381.866074 201 177 156
-1153.892136 1767.494774 4874.616623 237 207 186
-1483.717728 -445.613861 4231.400681 94 107 107
-1479.928780 -376.864624 4232.751846 189 194 192
-1485.444546 -377.494168 4217.873764 189 194 187
-1658.790779 1391.894627 3464.818192 51 41 38
-1677.295303 1383.548164 3429.434967 189 162 147
-2197.979164 997.417545 1982.105255 54 54 48
-1545.387363 1480.216026 3802.693176 194 162 130
-1860.292625 1233.728504 2940.278053 183 157 136
-1089.574528 1822.239494 5075.259018 244 212 188
-2172.741890 1034.893799 2077.889824 162 131 104
-2016.212654 1133.914757 2517.332458 31 30 34
-2129.277992 1064.960098 2207.675171 79 64 55
-1873.424721 1256.956863 2915.781784 197 189 184
-1092.593288 1837.369919 5086.327744 245 209 178
-1435.577011 1568.369770 4153.152466 110 99 112
-1454.940987 1562.130165 4106.337738 237 227 220
-1293.630219 1676.664734 4549.399185 139 109 79
-1101.542759 1832.218361 5079.197311 81 74 85
-1514.125061 -424.813128 4234.659576 166 173 176
-1586.074448 1459.942436 3758.537292 53 49 53
-1531.633663 1506.094933 3906.954575 98 68 54
-1210.453224 1744.111824 4786.729431 238 202 178
-1547.961426 1500.255394 3866.806793 201 167 144
-1543.001270 1499.074650 3885.562134 201 167 144
-2467.311287 827.839375 1373.505878 150 123 108
-1510.157299 1425.435734 3998.245621 99 82 75
-1526.113129 1521.450424 3940.433121 206 175 151
-2341.749763 941.247272 1727.523232 75 58 46
-1260.343266 1715.371323 4664.115143 226 193 166
